//X Y Z Nx Ny Nz
0.97964650 2.68913317 0.69368154 0.956644 0.291258 -0.001219
0.96598411 2.73417258 2.18902254 0.965365 0.260877 -0.003607
0.95691586 2.76406670 2.96236658 0.960407 0.277396 -0.025890
0.98079967 2.68523097 1.55707908 0.986983 0.160143 -0.014765
0.98384786 2.65428281 1.46568751 0.984252 0.170103 -0.048098
0.98763198 2.61586261 4.84739780 0.995277 0.097074 -0.001067
0.98157030 2.67740679 2.55290318 0.959898 0.280324 -0.003641
0.98277909 2.66513419 4.79620457 0.982880 0.182618 0.024427
0.99370748 2.55417800 4.36358356 0.995277 0.097074 0.001067
0.98130971 2.68005300 0.49754894 0.983924 0.178585 -0.001137
0.99021292 2.58965826 4.75142765 0.995277 0.097074 -0.001067
0.98391277 2.65362406 3.09163904 0.988815 0.148938 0.007839
0.98375946 2.65518022 2.91876769 0.986138 0.164165 -0.024108
0.98144001 2.67872953 2.43424249 0.960549 0.278086 -0.003643
0.98737901 2.61843085 3.90349483 0.995277 0.097074 -0.001067
0.98984122 2.59343243 3.21446633 0.992091 0.125512 0.001091
0.99103767 2.58128476 3.95862317 0.995277 0.097074 -0.001067
0.98983872 2.59345794 3.16857886 0.991461 0.129610 0.014401
0.98571986 2.63527608 1.82682121 0.995149 0.097901 -0.009683
0.98980206 2.59382963 2.88052082 0.995277 0.097074 0.001067
0.98111176 2.68206263 1.54515731 0.986102 0.166045 -0.005648
0.98083973 2.68482423 4.05914593 0.959928 0.280030 -0.011006
0.99303210 2.56103516 3.46014857 0.998002 0.059943 -0.019981
0.98736787 2.61854386 2.89507866 0.995277 0.097074 -0.001067
0.98486501 2.64395595 3.45831275 0.989868 0.139147 0.028282
0.98183388 2.67473102 2.30301571 0.986622 0.162355 -0.014760
0.98151916 2.67792630 4.24601507 0.985063 0.166703 -0.043133
0.98154640 2.67764974 1.68338013 0.987456 0.154828 0.030966
0.98459154 2.64673233 4.25166798 0.995277 0.097074 -0.001067
0.98191005 2.67395711 3.99857855 0.970843 0.231271 -0.063074
0.98180544 2.67501926 4.70090532 0.984175 0.176116 0.019568
0.98207730 2.67225933 1.08893728 0.990032 0.140800 0.003326
0.98147732 2.67835093 3.77117848 0.976245 0.215226 0.024971
0.98442870 2.64838529 2.18954158 0.987776 0.155847 0.003364
0.99482751 2.54280615 4.10360336 0.999579 0.017252 0.023340
0.98215371 2.67148376 3.01498628 0.976724 0.213769 -0.017716
0.98198420 2.67320442 3.41646552 0.989868 0.139147 0.028282
0.98216879 2.67133021 3.62754679 0.989470 0.138411 -0.042324
0.98428273 2.64986753 3.04720926 0.988865 0.148609 0.007822
0.99785405 2.51207781 4.85979557 0.998944 0.040456 -0.021784
0.99135834 2.57802868 3.58799553 0.994811 0.101730 -0.001071
0.99149984 2.57659197 2.86951780 0.995277 0.097074 0.001067
0.99262798 2.56513834 4.23778152 0.995277 0.097074 -0.001067
0.99019599 2.58983040 4.45776463 0.988795 0.148037 -0.019211
0.98249894 2.66797829 4.22988987 0.985063 0.166703 -0.043133
0.99208874 2.57061315 2.64057422 0.989221 -0.019132 0.145176
0.99306548 2.56069589 1.04544568 0.997818 0.065825 0.005224
0.99288964 2.56248140 2.36355710 0.995277 0.097074 0.001067
0.98784971 2.61365223 0.93464071 0.991423 0.129895 0.014433
0.99903625 2.50007510 0.82391936 0.989171 0.066099 0.131039
0.99354273 2.55585074 1.45364165 0.997945 0.056207 0.030755
0.99578559 2.53307915 0.21137577 0.999511 0.031266 -0.001009
0.99318242 2.55950880 2.88122869 0.995277 0.097074 0.001067
0.98663759 2.62595892 0.85348386 0.993231 0.116148 0.001085
0.98938513 2.59806275 1.14826977 0.990209 0.139231 0.010025
0.98396796 2.65306377 0.43759716 0.984062 0.168933 -0.055523
0.99044442 2.58730793 1.82423794 0.998178 0.037048 -0.047633
0.99777627 2.51286793 3.65874052 0.996909 -0.035565 -0.070053
0.98674709 2.62484741 0.92366529 0.986326 0.162278 0.028773
0.99540532 2.53693938 2.91450167 0.995277 0.097074 0.001067
0.99766040 2.51404405 0.28062624 0.999505 0.031329 -0.003032
0.99594557 2.53145504 2.22844172 0.994557 0.072555 -0.074787
0.99724305 2.51828170 2.59825826 0.993570 0.097673 -0.057257
0.99876547 2.50282454 1.25782776 0.999276 -0.017423 -0.033822
0.99262220 2.56519723 1.39084244 0.997945 0.056207 0.030755
0.98766357 2.61554241 1.41475403 0.991097 0.133100 -0.003300
0.99762976 2.51435471 1.61033905 0.996257 0.007443 -0.086123
0.99092007 2.58247876 0.31041828 0.995277 0.097074 0.001067
0.99208307 2.57067060 0.35596004 0.995277 0.097074 -0.001067
0.99110991 2.58055115 0.98958999 0.996315 0.085761 0.001059
0.99124211 2.57920885 1.23915184 0.995277 0.097074 0.001067
0.99674129 2.52337575 3.89598727 0.998541 0.051020 -0.017701
0.99942082 2.49617076 3.99716210 0.999586 0.027289 -0.009096
0.99570572 2.53389025 1.23426819 0.995277 0.097074 0.001067
0.99474376 2.54365683 0.97336018 0.998556 0.049041 -0.021912
0.98751396 2.61706138 1.43133640 0.990466 0.135726 -0.023556
0.99182338 2.57330775 2.85323906 0.995277 0.097074 0.001067
0.99333966 2.55791306 2.90699863 0.995277 0.097074 0.001067
0.99745578 2.51612186 3.85676265 0.998887 0.032289 0.034373
0.98727524 2.61948442 0.24752045 0.995277 0.097074 0.001067
0.99086136 2.58307457 1.61323309 0.997224 0.074451 -0.001049
0.99522293 2.44178772 1.41163766 0.998600 -0.049043 0.019826
0.98727226 2.36106420 3.44728518 0.989098 -0.146741 0.012322
0.99812073 2.47120929 1.40931630 0.998681 0.028235 -0.042875
0.99795336 2.46951056 4.91446829 0.999153 -0.032031 -0.025831
0.99835396 2.47357750 4.64928150 0.995277 -0.097074 -0.001067
0.99860471 2.47612333 1.02039540 0.999669 -0.011096 0.023201
0.99641854 2.45392680 1.95637274 0.995277 -0.097074 0.001067
0.98616225 2.34979439 3.92313004 0.995277 -0.097074 0.001067
0.99544281 2.44402051 3.43051100 0.998479 -0.041033 0.036825
0.99738693 2.46375942 1.88985443 0.995277 -0.097074 0.001067
0.99627453 2.45246530 2.50501895 0.998483 0.038929 -0.038929
0.98911071 2.37973022 3.66438007 0.994568 -0.101531 -0.022926
0.99675900 2.45738387 1.60357690 0.999238 -0.015373 -0.035870
0.99455494 2.43500566 4.82724810 0.999160 -0.036015 -0.019551
0.99426407 2.43205285 3.66204667 0.996655 -0.081554 0.005296
0.99724621 2.46233082 3.68422794 0.997098 -0.075233 -0.011656
0.98552549 2.34332919 4.55680847 0.995277 -0.097074 0.001067
0.99717623 2.46161985 1.64025402 0.999238 -0.015373 -0.035870
0.99442548 2.43369174 3.14656734 0.998590 -0.028232 -0.044963
0.99186450 2.40768957 4.70297909 0.995277 -0.097074 -0.001067
0.99081969 2.39708138 3.24985743 0.995277 -0.097074 -0.001067
0.99439359 2.43336773 3.88568473 0.997204 -0.071305 -0.022349
0.99102879 2.39920449 3.60137081 0.994518 -0.104516 0.003232
0.99363476 2.42566323 3.65108013 0.996655 -0.081554 0.005296
0.98709708 2.35928583 4.15474415 0.995277 -0.097074 -0.001067
0.99748427 2.46474767 2.18467879 0.997353 -0.022353 0.069187
0.98897707 2.37837338 3.65756106 0.994568 -0.101531 -0.022926
0.99726123 2.46248269 0.85652924 0.996275 -0.084721 -0.016086
0.98904705 2.37908387 4.49971914 0.995277 -0.097074 -0.001067
0.98591000 2.34723330 4.37961388 0.987621 -0.156533 0.010135
0.99416834 2.43108058 1.77873182 0.995277 -0.097074 0.001067
0.99784851 2.46844554 3.31182003 0.995277 -0.097074 0.001067
0.99844921 2.47454429 2.58417296 0.993570 0.097673 -0.057257
0.99533105 2.44288564 1.87711143 0.995277 -0.097074 0.001067
0.98467994 2.33474445 4.70534945 0.995277 -0.097074 -0.001067
0.99724656 2.46233392 4.08207273 0.998091 -0.026349 0.055859
0.99157220 2.40472174 4.75213623 0.995277 -0.097074 -0.001067
0.99898231 2.47995710 1.38791716 0.999976 -0.000983 0.006883
0.99343461 2.42363071 4.22719765 0.995277 -0.097074 -0.001067
0.99583954 2.44804859 1.96850169 0.995277 -0.097074 0.001067
0.98578054 2.34591866 4.44693565 0.995277 -0.097074 -0.001067
0.99481589 2.43765545 1.63364494 0.997472 -0.068755 -0.017982
0.98311156 2.31882095 0.90662843 0.974811 -0.222780 -0.010609
0.99157763 2.40477705 1.30214918 0.995753 -0.091304 -0.011816
0.98505670 2.33856988 3.40349555 0.989542 -0.142971 0.019138
0.99003029 2.38906693 0.60547566 0.995277 -0.097074 0.001067
0.98600405 2.34818840 3.50276685 0.988929 -0.148284 0.005575
0.98369688 2.32476425 0.67850512 0.980616 -0.195660 -0.010420
0.98289663 2.31663918 1.81210411 0.995277 -0.097074 0.001067
0.98314285 2.31913829 3.87620974 0.981696 -0.186934 -0.036446
0.99346089 2.42389798 1.04688179 0.995277 -0.097074 -0.001067
0.98523182 2.34034824 0.81684273 0.987042 -0.159785 -0.014732
0.98113549 2.29875779 4.00754976 0.967639 -0.251851 -0.015665
0.98275149 2.31516552 1.44117868 0.995277 -0.097074 -0.001067
0.99447989 2.43424416 0.25485432 0.999085 -0.025829 -0.034095
0.99416733 2.43107057 0.23873878 0.999085 -0.025829 -0.034095
0.98416197 2.32948565 2.88127708 0.974705 -0.223492 -0.001170
0.99103826 2.39930105 1.08473623 0.995277 -0.097074 -0.001067
0.98382515 2.32606554 3.85181260 0.981344 -0.189217 0.034083
0.98601598 2.34830952 1.90913761 0.990944 -0.129646 0.034948
0.98390675 2.32689452 2.91649032 0.974182 -0.224074 -0.027560
0.99602646 2.44994593 1.02619672 0.999669 -0.011096 0.023201
0.98593450 2.34748292 1.05644810 0.989468 -0.144228 0.012298
0.98103946 2.29778266 4.21620083 0.981344 -0.187766 -0.041332
0.98366803 2.32447100 3.31028628 0.982047 -0.188635 -0.001143
0.98277909 2.31544566 2.94327569 0.974182 -0.224074 -0.027560
0.98512709 2.33928466 3.64096546 0.992816 -0.118166 -0.018774
0.98727143 2.36105633 0.77858251 0.989620 -0.143601 0.005566
0.98908705 2.37949038 1.63285339 0.995277 -0.097074 -0.001067
0.98124266 2.29984570 3.12382197 0.959904 -0.280326 -0.001214
0.98260760 2.31370425 3.72431564 0.992091 -0.124701 -0.014346
0.98339975 2.32174683 2.76314163 0.968733 -0.247871 0.010777
0.98209721 2.30852294 0.97357517 0.974811 -0.222780 0.010609
0.98264408 2.31407475 2.32650399 0.981938 -0.186533 -0.031675
0.99026674 2.39146781 1.57688332 0.997472 -0.068755 -0.017982
0.98087758 2.29613972 0.53870660 0.973030 -0.190567 0.129990
0.98614550 2.34962511 1.93796790 0.990944 -0.129646 0.034948
0.98865592 2.37511325 2.28274155 0.995277 -0.097074 0.001067
0.98370945 2.32489157 2.42284250 0.976541 -0.215328 0.001164
0.99563640 2.44598579 0.53830200 0.995277 -0.097074 -0.001067
0.98085070 2.29586673 1.90019321 0.982460 -0.184865 0.024416
0.98307168 2.31841588 2.47160649 0.975570 -0.219533 -0.008218
0.98320729 2.31979346 1.35995853 0.990111 -0.136918 -0.030552
0.97871500 2.28837562 2.58375478 0.974515 -0.223795 -0.015393
0.98004466 2.29275870 3.12333608 0.959904 -0.280326 -0.001214
0.96100062 2.22997856 1.97074127 0.969099 -0.246178 0.015611
0.95047694 2.19528580 3.36097264 0.956644 -0.291258 -0.001219
0.97298646 2.26949120 1.97035360 0.969441 -0.244468 -0.020473
0.97043848 2.26109099 3.11474609 0.959904 -0.280326 -0.001214
0.94248515 2.16893983 4.25805998 0.956644 -0.291258 -0.001219
0.96891177 2.25605869 1.26315105 0.963624 -0.266793 0.015837
0.96930033 2.25733900 3.19607210 0.962995 -0.269054 0.015827
0.94280899 2.17000747 4.13672256 0.956644 -0.291258 -0.001219
0.97685236 2.28223515 2.41014719 0.966697 -0.255785 -0.008406
0.95434058 2.20802283 2.75983787 0.961810 -0.273587 0.008512
0.96602768 2.24655056 2.45037556 0.963621 -0.267202 -0.006045
0.95458794 2.20883846 2.72867084 0.961810 -0.273587 0.008512
0.96571112 2.24550676 3.48784304 0.982277 -0.187264 -0.008042
0.94076777 2.16327834 4.80689430 0.940324 -0.340224 0.006277
0.95679384 2.21610999 4.03088427 0.958392 -0.285453 0.001215
0.95525980 2.21105289 3.86114740 0.969064 -0.246736 -0.005960
0.95440793 2.20824480 3.28791904 0.963831 -0.266178 0.013370
0.96603155 2.24656343 2.76533604 0.969670 -0.243919 -0.015620
0.95871532 2.22244406 4.89127588 0.956644 -0.291258 -0.001219
0.97187364 2.26582193 3.61036921 0.989802 -0.139138 -0.030542
0.96295398 2.23641777 3.08725166 0.959904 -0.280326 -0.001214
0.94194353 2.16715431 4.18406010 0.956644 -0.291258 -0.001219
0.96316868 2.23712540 2.30376530 0.962182 -0.271947 -0.015853
0.97273749 2.26866984 2.58085132 0.973058 -0.229866 -0.017865
0.94982743 2.19314432 4.50908852 0.941619 -0.332869 -0.050513
0.95743233 2.21821475 4.15235376 0.958193 -0.286119 0.001218
0.95744324 2.21825099 2.76195526 0.961810 -0.273587 0.008512
0.97461641 2.27486420 2.51727772 0.975570 -0.219533 -0.008218
0.94523627 2.17800903 4.16844606 0.958193 -0.286119 0.001218
0.93859029 2.15610003 4.76721859 0.938121 -0.346286 0.003778
0.95323712 2.20438504 3.90361595 0.968656 -0.248404 -0.001189
0.95473766 2.20933151 4.81820774 0.956644 -0.291258 -0.001219
0.95830679 2.22109795 2.73351979 0.961810 -0.273587 0.008512
0.94576591 2.17975497 4.91529274 0.944596 -0.328175 0.006239
0.95119244 2.19764447 4.03859997 0.950386 -0.311013 -0.006195
0.96513438 2.24360585 2.91626596 0.965974 -0.258159 -0.015756
0.97186255 2.26578569 3.19401670 0.962995 -0.269054 0.015827
0.97486228 2.27567410 4.30645037 0.962221 -0.268324 0.046177
0.94336569 2.17184305 1.29652202 0.956644 -0.291258 0.001219
0.93551558 2.14596438 1.93256760 0.937121 -0.348726 -0.013949
0.96922231 2.25708246 0.32929564 0.956644 -0.291258 0.001219
0.94928074 2.19134283 1.57597530 0.936476 -0.348426 0.040153
0.93554395 2.14605832 0.84807473 0.936105 -0.351199 -0.019156
0.93086624 2.13063741 2.05331612 0.935020 -0.354576 -0.003786
0.94820333 2.18779087 2.15460777 0.956644 -0.291258 0.001219
0.95735508 2.21796083 0.99265474 0.963205 -0.268434 -0.013361
0.94464117 2.17604780 2.34938335 0.939808 -0.341172 0.019024
0.93360901 2.13967896 2.68647361 0.948461 -0.315309 -0.031658
0.97138107 2.26419902 0.85590786 0.967826 -0.251274 -0.013225
0.93258959 2.13631845 2.49506068 0.962175 -0.258704 0.085385
0.93648010 2.14914441 0.88959569 0.956644 -0.291258 0.001219
0.96163028 2.23205447 1.27952242 0.961130 -0.275483 0.018366
0.94152308 2.16576910 0.40994915 0.953472 -0.301420 0.006151
0.93030053 2.12877226 3.38163209 0.931755 -0.362705 -0.016661
0.94672859 2.18292928 2.34505486 0.956644 -0.291258 0.001219
0.96313405 2.23701191 0.99555278 0.968178 -0.250123 -0.008377
0.96224278 2.23407364 0.58719534 0.961575 -0.274214 0.013406
0.96495152 2.24300337 0.78335172 0.970335 -0.241691 -0.005953
0.94112998 2.16447306 0.74923825 0.940631 -0.339429 -0.001253
0.93586481 2.14711547 3.22312880 0.947678 -0.319205 -0.003726
0.93426877 2.14185429 2.17851496 0.939865 -0.340494 0.026780
0.93881929 2.15685558 0.89070046 0.956644 -0.291258 0.001219
0.96850663 2.25472307 1.08641028 0.975828 -0.218539 0.001169
0.93893379 2.15723276 2.94905019 0.949905 -0.308112 -0.052417
0.92394894 2.10783410 1.30513608 0.948719 -0.249090 0.194644
0.95547742 2.21177053 2.14025164 0.956644 -0.291258 0.001219
0.92996329 2.12766099 0.44357210 0.946568 -0.322209 0.013791
0.96408236 2.24013782 1.19917071 0.956644 -0.291258 0.001219
0.97287393 2.26912022 0.30291215 0.956644 -0.291258 0.001219
0.96542007 2.24454784 1.09518695 0.978074 -0.208175 -0.005815
0.96363598 2.23866630 1.18480599 0.956644 -0.291258 0.001219
0.94079363 2.16336441 0.48160076 0.947295 -0.319947 0.016311
0.95583528 2.21295071 0.83014017 0.965354 -0.260874 0.006011
0.93846345 2.15568280 0.96923077 0.956644 -0.291258 0.001219
0.97110814 2.26329923 0.81374627 0.969278 -0.245614 -0.013179
0.92533463 2.11240149 4.58416224 0.918783 -0.392631 -0.040982
0.95324063 2.20439720 0.64060146 0.957757 -0.287450 0.008562
0.89810860 2.05939198 1.62104464 0.881656 -0.471891 0.001322
0.90495533 2.07220101 3.79159999 0.881656 -0.471891 -0.001322
0.91353118 2.08824515 3.44500637 0.889848 -0.456163 -0.009255
0.88179505 2.02887130 4.15831375 0.881656 -0.471891 0.001322
0.88596910 2.03668046 3.37319422 0.900850 -0.434129 -0.001304
0.89822960 2.05961800 3.84121275 0.881656 -0.471891 -0.001322
0.91771072 2.09606433 4.54961014 0.918783 -0.392631 -0.040982
0.87903976 2.02371645 3.99840021 0.877010 -0.480426 0.006654
0.88768393 2.03988838 4.55682230 0.883337 -0.468736 -0.001320
0.89987379 2.06269431 2.62539625 0.900696 -0.432172 0.044429
0.87539750 2.01690269 3.22615290 0.881656 -0.471891 -0.001322
0.90066302 2.06417084 2.19182706 0.919884 -0.392018 0.011644
0.89896077 2.06098628 1.72823811 0.881656 -0.471891 -0.001322
0.91597414 2.09281588 1.72012627 0.881656 -0.471891 -0.001322
0.91843832 2.09742546 3.53708792 0.881656 -0.471891 -0.001322
0.89658535 2.05654168 4.01186514 0.881656 -0.471891 -0.001322
0.89803857 2.05926085 3.06153297 0.912495 -0.408325 -0.024946
0.85734546 1.98312938 4.90666723 0.881059 -0.472990 -0.003975
0.85983616 1.98778915 4.29102707 0.881656 -0.471891 -0.001322
0.88998544 2.04419422 3.90785480 0.881656 -0.471891 -0.001322
0.91093409 2.08338642 3.13935590 0.906829 -0.421447 0.006524
0.90771693 2.07736754 3.27461648 0.904847 -0.425734 0.001302
0.90838486 2.07861710 2.85747337 0.915576 -0.400317 0.038314
0.90604532 2.07424045 2.60748076 0.904355 -0.426730 0.006525
0.90486336 2.07202911 1.82570016 0.899829 -0.436081 0.011857
0.90342665 2.06934071 4.79019976 0.931498 -0.363728 0.003802
0.92247289 2.10497379 2.79455590 0.952284 -0.304080 0.026279
0.88841993 2.04126573 2.05040503 0.891465 -0.452996 0.009245
0.89568299 2.05485392 2.35667562 0.902781 -0.376522 -0.207887
0.87107921 2.00882339 4.14301157 0.860492 -0.508658 -0.028638
0.90640402 2.07491112 4.36682987 0.903324 -0.423731 -0.066762
0.91095370 2.08342290 4.67074156 0.910685 -0.413000 0.009120
0.85692042 1.98233438 4.21264219 0.881656 -0.471891 -0.001322
0.92256153 2.10513997 1.45195591 0.881656 -0.471891 -0.001322
0.87040049 2.00755382 3.54526162 0.865175 -0.501454 -0.004012
0.91058689 2.08273649 3.98128891 0.925095 -0.379559 0.011580
0.87831569 2.02236199 3.79861403 0.878249 -0.478202 0.001325
0.88153118 2.02837753 4.52537012 0.881367 -0.472113 0.017387
0.91067934 2.08290958 4.86156559 0.915709 -0.400705 0.030217
0.90904391 2.07984996 3.59455252 0.881656 -0.471891 0.001322
0.86199617 1.99183059 1.14819515 0.863833 -0.502420 0.036963
0.88926232 2.04284191 0.73437923 0.907304 -0.420458 0.003905
0.91397893 2.08908343 0.51848263 0.911587 -0.411057 0.006484
0.83318895 1.93793583 4.92028427 0.881059 -0.472990 -0.003975
0.84237921 1.95512962 2.00814438 0.848133 -0.529572 0.014975
0.87755823 2.02094483 1.43596411 0.881656 -0.471891 -0.001322
0.84440392 1.95891762 0.85428494 0.881656 -0.471891 -0.001322
0.85195464 1.97304404 3.71631765 0.877475 -0.479472 0.012020
0.85932302 1.98682928 3.53695560 0.862806 -0.504557 0.031449
0.89450020 2.05264115 1.37894511 0.881656 -0.471891 -0.001322
0.88691866 2.03845716 1.90941226 0.903365 -0.428870 0.001304
0.86479294 1.99706280 1.37120366 0.881656 -0.471891 -0.001322
0.83290219 1.93739951 1.33522749 0.807627 -0.589498 0.015186
0.83752179 1.94604218 0.84058994 0.881656 -0.471891 -0.001322
0.84350932 1.95724416 0.31361330 0.842893 -0.537872 0.014979
0.86588806 1.99911165 1.78798819 0.874622 -0.484714 0.009347
0.84724218 1.96422768 2.71204138 0.826496 -0.561683 0.037631
0.86702108 2.00123119 2.68883872 0.868403 -0.494867 -0.031355
0.83194578 1.93561018 3.67309618 0.844909 -0.534701 -0.014966
0.85371214 1.97633219 1.00649250 0.881656 -0.471891 0.001322
0.84743553 1.96458948 2.49908113 0.837627 -0.546160 0.009534
0.84116995 1.95286739 1.39821005 0.881656 -0.471891 -0.001322
0.84767210 1.96503198 0.21595395 0.835560 -0.549316 -0.009541
0.91103494 2.08357525 0.67141384 0.916671 -0.398496 -0.030249
0.87587112 2.01778865 2.33801937 0.881656 -0.471891 0.001322
0.84908521 1.96767569 3.89961696 0.863789 -0.503765 0.009404
0.86256951 1.99290299 0.58802480 0.881656 -0.471891 -0.001322
0.89120072 2.04646826 1.67053807 0.881656 -0.471891 0.001322
0.84119195 1.95290852 0.82913202 0.881656 -0.471891 -0.001322
0.84380454 1.95779634 1.67414010 0.881656 -0.471891 0.001322
0.88193929 2.02914143 1.93885028 0.887728 -0.460352 -0.003957
0.84838605 1.96636760 1.58166015 0.881656 -0.471891 0.001322
0.84040391 1.95143425 4.53698921 0.881656 -0.471891 -0.001322
0.85552448 1.97972286 1.10792911 0.861627 -0.507237 0.017584
0.86763066 2.00237203 0.40118915 0.881065 -0.472993 0.001325
0.86727059 2.00169826 1.63117230 0.881656 -0.471891 0.001322
0.87852776 2.02275896 0.84878212 0.897054 -0.441196 0.025325
0.88864785 2.04169226 1.17962658 0.881656 -0.471891 0.001322
0.85471892 1.97821581 0.66988277 0.848864 -0.527969 0.026056
0.87408805 2.01445270 1.61118269 0.881656 -0.471891 0.001322
0.77220023 1.86249948 2.73214149 0.785832 -0.617740 -0.029416
0.80759192 1.90562439 2.83100319 0.773712 -0.633537 0.001374
0.81487930 1.91450417 2.61029959 0.848511 -0.529135 0.006766
0.80231470 1.89919412 3.55120993 0.807902 -0.588951 -0.020786
0.79565114 1.89107454 2.16027188 0.773712 -0.633537 0.001374
0.72806174 1.80871642 4.69858074 0.731734 -0.681172 0.023876
0.76188958 1.84993589 4.43298674 0.770137 -0.637877 -0.001378
0.73404646 1.81600881 4.05421638 0.743604 -0.668549 -0.009729
0.76769102 1.85700500 2.90101290 0.773712 -0.633537 0.001374
0.75616509 1.84296048 3.87439108 0.773712 -0.633537 -0.001374
0.75732893 1.84437871 4.56572580 0.768784 -0.639507 0.001375
0.81017232 1.90876865 1.20892513 0.796645 -0.603434 -0.035002
0.75830686 1.84557033 3.15583897 0.751398 -0.659730 0.012500
0.82041466 1.92124903 2.06155276 0.789493 -0.613745 -0.004119
0.77444851 1.86523902 2.78704858 0.771254 -0.636526 -0.001375
0.77497965 1.86588621 3.43378353 0.773712 -0.633537 -0.001374
0.83130747 1.93452191 2.37087321 0.829052 -0.558679 -0.023451
0.83074468 1.93383622 0.46759453 0.811124 -0.584507 -0.020727
0.81375909 1.91313922 1.84436297 0.819340 -0.572568 -0.029114
0.77662748 1.86789417 3.01142073 0.773712 -0.633537 0.001374
0.83114791 1.93432748 4.90138865 0.881059 -0.472990 -0.003975
0.80792046 1.90602469 2.59163332 0.768466 -0.636319 -0.067510
0.75300634 1.83911157 4.42605448 0.768784 -0.639507 -0.001375
0.82443768 1.92615104 4.68298244 0.773712 -0.633537 -0.001374
0.81806189 1.91838217 1.91217685 0.838816 -0.544208 -0.015003
0.82507604 1.92692900 3.96682334 0.844909 -0.534701 0.014966
0.73114634 1.81247497 4.42308140 0.768784 -0.639507 -0.001375
0.83117580 1.93436158 1.68905759 0.881656 -0.471891 0.001322
0.74439257 1.82861567 4.53070259 0.768784 -0.639507 0.001375
0.81000119 1.90856016 3.54537916 0.842423 -0.537097 -0.043023
0.80439919 1.90173411 3.93792462 0.787127 -0.616789 -0.001374
0.79808021 1.89403439 2.38469052 0.773712 -0.633537 -0.001374
0.76871371 1.85825109 4.69743061 0.773712 -0.633537 -0.001374
0.79495698 1.89022875 2.00398159 0.789779 -0.613353 0.006892
0.82940835 1.93220794 2.57728887 0.768466 -0.636319 -0.067510
0.82604331 1.92810762 3.80795407 0.829628 -0.558113 0.015084
0.79191107 1.88651717 3.27816987 0.773712 -0.633537 0.001374
0.80138266 1.89805841 3.98990464 0.785247 -0.619057 -0.012464
0.80727214 1.90523481 4.09669590 0.802901 -0.594062 0.049388
0.77927375 1.87111855 4.37144089 0.773712 -0.633537 0.001374
0.74563402 1.83012843 4.63504219 0.773712 -0.633537 -0.001374
0.79830873 1.89431274 1.96144915 0.789779 -0.613353 0.006892
0.78758216 1.88124251 2.25375843 0.773712 -0.633537 -0.001374
0.78711462 1.88067269 4.00832653 0.773712 -0.633537 -0.001374
0.71638370 1.79448676 3.08388400 0.711203 -0.702819 -0.015370
0.76979572 1.85956955 2.34610176 0.773712 -0.633537 -0.001374
0.71905178 1.79773772 4.50610542 0.711248 -0.702929 0.004159
0.73670518 1.81924868 3.18189120 0.724794 -0.688060 0.035321
0.71398115 1.79155922 4.13516188 0.644937 -0.762198 -0.055771
0.77551579 1.86653948 1.28687441 0.767650 -0.640856 0.004135
0.72833407 1.80904830 1.78274941 0.709835 -0.704256 0.012551
0.77278686 1.86321437 2.17587638 0.773712 -0.633537 -0.001374
0.73337597 1.81519186 0.63500452 0.740862 -0.671622 -0.006924
0.73321044 1.81499016 2.77815890 0.743710 -0.668078 0.023810
0.75648177 1.84334636 1.37741208 0.765359 -0.643566 -0.006920
0.74911547 1.83437061 3.27675009 0.730381 -0.682717 0.021028
0.78162187 1.87397981 0.43011856 0.773712 -0.633537 0.001374
0.74792218 1.83291650 0.57689726 0.740873 -0.671632 -0.004154
0.80911505 1.90748048 0.22718349 0.835560 -0.549316 -0.009541
0.76670140 1.85579920 0.47614703 0.773712 -0.633537 -0.001374
0.72263461 1.80210340 3.95520091 0.727572 -0.685996 -0.006929
0.71475685 1.79250431 3.75925207 0.670560 -0.741145 0.032469
0.72028083 1.79923522 0.58694643 0.727612 -0.685875 -0.012521
0.75355154 1.83977592 2.03974724 0.756412 -0.654082 0.004149
0.73323017 1.81501424 1.70995653 0.696378 -0.716316 0.044147
0.73022687 1.81135464 3.49155569 0.773712 -0.633537 -0.001374
0.76317006 1.85149622 0.53278285 0.773712 -0.633537 0.001374
0.76834947 1.85780728 2.30550933 0.773712 -0.633537 -0.001374
0.82659572 1.92878079 0.24833679 0.835560 -0.549316 -0.009541
0.75994122 1.84756184 0.66108441 0.773712 -0.633537 0.001374
0.75787371 1.84504259 2.44955826 0.753854 -0.657029 0.004150
0.72202897 1.80136549 1.03003764 0.689491 -0.718769 -0.089297
0.77740771 1.86884487 2.07393217 0.788169 -0.615457 -0.001371
0.74001479 1.82328141 0.72365695 0.773712 -0.633537 0.001374
0.73543406 1.81769967 1.24406815 0.755050 -0.655665 -0.001380
0.73751688 1.82023752 2.97674441 0.706796 -0.706796 -0.029626
0.73634988 1.81881559 0.61578339 0.740862 -0.671622 -0.006924
0.75787836 1.84504819 0.95434207 0.773712 -0.633537 0.001374
0.71421391 1.79184282 2.31420732 0.773712 -0.633537 -0.001374
0.72362632 1.80331182 1.02639937 0.689491 -0.718769 -0.089297
0.78401673 1.87689793 0.67009234 0.801445 -0.597991 -0.009623
0.76865625 1.85818100 1.81443167 0.773712 -0.633537 -0.001374
0.72572339 1.80586720 2.78700256 0.737050 -0.675513 0.020979
0.76614261 1.85511827 2.23596144 0.773712 -0.633537 -0.001374
0.78970444 1.88382852 1.21921408 0.775054 -0.631882 0.004130
0.72061610 1.79964387 3.58743262 0.755613 -0.653542 0.043947
0.65734130 1.74234140 3.04622507 0.673708 -0.738407 -0.029536
0.70328665 1.78004766 4.18755722 0.642214 -0.766514 -0.004143
0.67742288 1.75882196 1.45621395 0.633537 -0.773712 0.001374
0.61015570 1.70361733 3.33751822 0.633537 -0.773712 0.001374
0.65744472 1.74242628 3.96187782 0.655442 -0.755214 0.006929
0.61979765 1.71153021 3.72026491 0.642214 -0.766514 0.004143
0.66291481 1.74691546 3.81507921 0.643833 -0.765155 -0.004136
0.63779032 1.72629631 3.05902076 0.624527 -0.781002 0.001373
0.66628683 1.74968278 4.79320335 0.693130 -0.720800 0.004150
0.68573058 1.76563990 2.08726549 0.694172 -0.719414 -0.023840
0.66809481 1.75116658 4.73408604 0.693130 -0.720800 0.004150
0.66147369 1.74573278 1.84552729 0.684525 -0.728957 -0.006942
0.66333890 1.74726355 2.82377005 0.704992 -0.707840 0.044151
0.57623649 1.67578053 4.43036842 0.590006 -0.807304 0.012378
0.62934744 1.71936750 3.73216987 0.642214 -0.766514 0.004143
0.59772915 1.69341910 3.71369100 0.633537 -0.773712 0.001374
0.64829379 1.73491633 4.02079105 0.664262 -0.747468 0.006934
0.63129085 1.72096241 4.14708900 0.639507 -0.768784 0.001375
0.63843513 1.72682559 4.17351055 0.639228 -0.769006 -0.004142
0.64627576 1.73326015 3.02473831 0.673162 -0.738352 -0.041098
0.66742653 1.75061810 3.63242960 0.655660 -0.755045 0.004141
0.64174086 1.72953844 3.90387154 0.670256 -0.742118 0.004146
0.70444953 1.78100204 2.70953846 0.722189 -0.691458 -0.018159
0.66663861 1.74997151 4.79364347 0.693130 -0.720800 0.004150
0.65340906 1.73911428 3.02909470 0.673162 -0.738352 -0.041098
0.65238094 1.73827052 3.23561335 0.659967 -0.751283 -0.004151
0.65729302 1.74230182 2.18590355 0.648154 -0.761478 0.006910
0.62611324 1.71671331 4.31813526 0.612421 -0.790530 -0.001370
0.68276113 1.76320291 1.29155993 0.671059 -0.741106 -0.021014
0.66843700 1.75144744 3.21396852 0.678906 -0.734214 -0.004148
0.63553619 1.72444642 4.54052782 0.627813 -0.778154 0.018097
0.60906339 1.70272088 4.28574133 0.615069 -0.788444 0.006880
0.69451404 1.77284825 1.31192088 0.705713 -0.708486 -0.004159
0.63989496 1.72802353 2.61920810 0.624527 -0.781002 0.001373
0.62677115 1.71725321 4.24779320 0.631887 -0.775059 0.001377
0.70408428 1.78070223 4.51065922 0.711248 -0.702929 0.004159
0.68931115 1.76857829 3.15758896 0.700167 -0.713977 -0.001381
0.66028595 1.74475801 3.30280423 0.695172 -0.717826 0.038227
0.68496180 1.76500893 2.52735901 0.803565 -0.572259 0.163717
0.65753514 1.74250054 4.28601456 0.633537 -0.773712 0.001374
0.69630700 1.77431965 1.64900446 0.689607 -0.721280 0.064786
0.62529135 1.71603870 1.26802480 0.633537 -0.773712 -0.001374
0.57865041 1.67776155 0.54077470 0.617713 -0.786305 -0.012437
0.58134985 1.67997694 2.36232233 0.539109 -0.842102 0.015013
0.62260550 1.71383452 0.25158957 0.619436 -0.784987 -0.009657
0.68567097 1.76559091 0.20284006 0.633537 -0.773712 0.001374
0.62720245 1.71760714 2.01482654 0.603491 -0.796720 0.032205
0.62990659 1.71982634 0.76572186 0.612421 -0.790530 -0.001370
0.58591425 1.68372285 3.50481534 0.552283 -0.833246 0.026168
0.57130349 1.67173219 0.75187045 0.585819 -0.810175 -0.020774
0.56255513 1.66455245 2.50276399 0.522731 -0.852011 -0.028812
0.56992191 1.67059827 3.76698613 0.633537 -0.773712 -0.001374
0.57190967 1.67222965 4.02297688 0.577665 -0.815934 -0.023550
0.62656766 1.71708620 1.99620557 0.603491 -0.796720 0.032205
0.68975282 1.76894081 0.33151266 0.633537 -0.773712 0.001374
0.63021040 1.72007561 0.70147264 0.633537 -0.773712 -0.001374
0.57235581 1.67259574 0.86526048 0.613339 -0.789761 -0.009648
0.56288677 1.66482472 1.04991055 0.633537 -0.773712 -0.001374
0.59634763 1.69228530 0.66776448 0.583790 -0.811811 0.012363
0.62517107 1.71594012 0.25774869 0.619436 -0.784987 -0.009657
0.66977239 1.75254333 0.55579638 0.668315 -0.743657 0.018138
0.65755767 1.74251902 0.30131564 0.633537 -0.773712 0.001374
0.63938981 1.72760904 1.32960832 0.633537 -0.773712 0.001374
0.60103065 1.69612849 0.76484996 0.612421 -0.790530 -0.001370
0.59280586 1.68937862 2.41908383 0.533493 -0.845716 -0.012217
0.56561595 1.66706455 4.29736328 0.610705 -0.791857 0.001372
0.65089560 1.73705161 1.71842182 0.657235 -0.753685 0.001378
0.56409478 1.66581619 1.50775421 0.641584 -0.766839 -0.018092
0.65341806 1.73912168 1.00170445 0.655785 -0.751329 0.073830
0.56732208 1.66846466 4.21016073 0.578933 -0.814948 -0.026378
0.58800632 1.68543983 1.15939438 0.633537 -0.773712 0.001374
0.61746871 1.70961893 3.00004363 0.606288 -0.794973 0.020811
0.64975941 1.73611915 0.48919287 0.644255 -0.764442 0.023758
0.67252159 1.75479949 0.82911694 0.633537 -0.773712 0.001374
0.61007065 1.70354748 1.54062164 0.631566 -0.775292 -0.006910
0.64135647 1.72922301 1.19823337 0.633537 -0.773712 -0.001374
0.57177705 1.67212081 0.80729592 0.613353 -0.789779 -0.006892
0.58095902 1.67965627 3.14334869 0.605905 -0.795508 0.006870
0.60295951 1.69771147 0.30318359 0.619436 -0.784987 -0.009657
0.55064529 1.65618777 4.33416271 0.560008 -0.828486 0.001356
0.50856763 1.63369668 4.00555325 0.493110 -0.869958 -0.004009
0.51438779 1.63680768 1.91813302 0.471891 -0.881656 0.001322
0.50893652 1.63389385 1.84013140 0.471891 -0.881656 0.001322
0.53311253 1.64681625 2.02048826 0.594696 -0.802769 -0.043583
0.51399696 1.63659871 3.20953417 0.550553 -0.834710 0.012295
0.47878885 1.61777961 2.84540629 0.471891 -0.881656 0.001322
0.52917075 1.64470935 3.05201197 0.556136 -0.829276 -0.054910
0.47894973 1.61786556 4.12363577 0.491076 -0.871091 0.006690
0.41855741 1.58558524 4.25778770 0.429093 -0.898456 0.093039
0.53692126 1.64885211 4.41598225 0.487672 -0.873026 0.001329
0.47183293 1.61406159 2.86743855 0.471891 -0.881656 0.001322
0.54138756 1.65123940 3.14167023 0.541234 -0.840871 0.001350
0.55507529 1.65855563 1.06890333 0.628881 -0.777500 0.001376
0.48751038 1.62244141 2.42464638 0.512118 -0.858906 -0.004032
0.47468370 1.61558533 2.47366548 0.479317 -0.877641 -0.001328
0.51120603 1.63510704 2.69827843 0.471891 -0.881656 -0.001322
0.52428997 1.64210045 4.67960835 0.471891 -0.881656 -0.001322
0.45481646 1.60496616 4.39615583 0.430404 -0.902116 -0.030648
0.55052030 1.65612090 3.18720317 0.550553 -0.834710 0.012295
0.48751265 1.62244260 4.04113483 0.493110 -0.869958 -0.004009
0.51309794 1.63611829 2.33198166 0.534243 -0.845321 -0.004058
0.41520423 1.58379292 4.74752045 0.317372 -0.946976 -0.050111
0.53284878 1.64667523 4.50934792 0.535582 -0.843988 0.028913
0.55469841 1.65835416 1.70998108 0.593027 -0.777867 0.207945
0.43169841 1.59260929 4.44255495 0.434129 -0.900850 0.001304
0.52118981 1.64044344 4.31974697 0.525959 -0.850457 -0.009465
0.54991126 1.65579534 2.71415973 0.471891 -0.881656 -0.001322
0.54461879 1.65296650 2.56950951 0.544370 -0.838844 0.001351
0.55072254 1.65622902 1.43813276 0.641584 -0.766839 -0.018092
0.43054175 1.59199095 3.99241161 0.471891 -0.881656 -0.001322
0.51047045 1.63471377 2.43531132 0.512118 -0.858906 -0.004032
0.52860516 1.64440703 2.55005670 0.479317 -0.877641 -0.001328
0.55469030 1.65834987 0.60624093 0.509555 -0.860128 0.023100
0.49263093 1.62517834 1.90566421 0.471891 -0.881656 0.001322
0.44058865 1.59736121 3.54065657 0.403077 -0.911363 0.083348
0.50540239 1.63200486 4.52830982 0.491293 -0.870868 -0.014806
0.50813127 1.63346350 1.83686781 0.471891 -0.881656 0.001322
0.39097005 1.57084012 2.19618773 0.483708 -0.864283 -0.137995
0.43137115 1.59243441 2.75553513 0.438291 -0.898824 0.003925
0.44205371 1.59814453 2.51274872 0.432900 -0.901326 0.014474
0.50708294 1.63290334 0.65349132 0.495129 -0.868810 0.004004
0.38996544 1.57030272 3.81340575 0.311007 -0.950368 0.008674
0.41388899 1.58309066 0.39650738 0.448789 -0.893629 0.003948
0.38585499 1.56810570 3.85773182 0.471891 -0.881656 0.001322
0.44877565 1.60173774 0.81579155 0.454065 -0.890920 0.009267
0.48060465 1.61875021 1.77861691 0.471891 -0.881656 -0.001322
0.39014393 1.57039881 0.73872215 0.392358 -0.919790 -0.006432
0.42576295 1.58943725 1.66128290 0.342064 -0.935685 0.086514
0.48629689 1.62179315 0.26812997 0.471891 -0.881656 -0.001322
0.42894715 1.59113872 3.32094646 0.387064 -0.922009 -0.009001
0.42183927 1.58733988 1.82401252 0.471891 -0.881656 0.001322
0.39779603 1.57448816 4.25482559 0.450294 -0.875654 0.174544
0.41272604 1.58246875 1.81109905 0.471891 -0.881656 -0.001322
0.41081667 1.58144844 1.09577417 0.335142 -0.941712 -0.029309
0.40479288 1.57822800 3.86751771 0.471891 -0.881656 0.001322
0.43490779 1.59432483 2.97972846 0.463510 -0.886083 0.003962
0.53187293 1.64615381 0.54329515 0.482801 -0.875498 -0.020173
0.39057267 1.57062733 3.49188590 0.368516 -0.929579 0.008926
0.40457720 1.57811344 0.91000092 0.375561 -0.926726 -0.011536
0.45335594 1.60418546 2.73516202 0.451947 -0.892036 -0.003953
0.52238494 1.64108229 0.76918072 0.542461 -0.840071 -0.004058
0.44459504 1.59950304 1.33899653 0.409241 -0.909576 0.072059
0.46475008 1.61027586 1.76216352 0.471891 -0.881656 -0.001322
0.48126864 1.61910498 2.20983744 0.471891 -0.881656 0.001322
0.39996266 1.57564664 1.88700879 0.471891 -0.881656 -0.001322
0.42233983 1.58760715 3.34630132 0.375114 -0.926978 0.001272
0.40755701 1.57970619 0.28105831 0.459279 -0.888291 -0.001316
0.45770663 1.60651100 2.78856277 0.443546 -0.896251 -0.001308
0.44434905 1.59937179 0.27947286 0.463513 -0.886089 -0.001321
0.45075488 1.60279572 0.59290737 0.461432 -0.887167 -0.003966
0.40024623 1.57579839 1.64833617 0.332753 -0.940844 0.063941
0.39399898 1.57245934 0.61258036 0.398272 -0.917193 0.011676
0.41864949 1.58563507 0.99529672 0.435049 -0.900329 -0.011829
0.44169357 1.59795237 0.61928022 0.444585 -0.895728 -0.003934
0.53193879 1.64618909 0.20785570 0.548356 -0.834455 0.054695
0.42862961 1.59096956 0.60866016 0.435960 -0.899747 0.019877
0.46076408 1.60814559 0.96878558 0.465583 -0.885003 0.001319
0.39885071 1.57505238 1.67764509 0.364584 -0.931149 0.006352
0.30350268 1.54239130 4.50260735 0.291258 -0.956644 -0.001219
0.33296707 1.55132937 3.25196838 0.318351 -0.947442 0.031708
0.24190442 1.52370596 4.42002773 0.291258 -0.956644 -0.001219
0.34906188 1.55621135 4.54150295 0.339097 -0.938737 -0.061535
0.35148931 1.55694830 1.31097996 0.381328 -0.924236 -0.019390
0.26362938 1.53029597 4.77373409 0.285453 -0.958392 0.001215
0.36883837 1.56221044 4.27139854 0.367519 -0.929758 0.021922
0.30215970 1.54198396 4.34893227 0.291258 -0.956644 -0.001219
0.36719069 1.56171143 0.51654249 0.358467 -0.933535 0.003800
0.31120038 1.54472625 4.82327127 0.317477 -0.947332 -0.042075
0.38038409 1.56571257 4.86607122 0.306498 -0.950273 -0.055144
0.30351242 1.54239464 2.96185136 0.288352 -0.957524 0.001217
0.37959993 1.56547570 0.95148414 0.352022 -0.935739 0.021761
0.27024245 1.53230214 4.38573122 0.291258 -0.956644 -0.001219
0.25954232 1.52905643 3.76767659 0.227265 -0.973826 0.003533
0.29554898 1.53997886 3.74770522 0.303658 -0.952774 -0.003688
0.33107293 1.55075455 4.39390659 0.347481 -0.937300 0.026927
0.31691471 1.54645991 3.58420134 0.295545 -0.955309 -0.006132
0.25820702 1.52865112 4.79071045 0.286117 -0.958188 -0.003653
0.36843723 1.56208944 0.85696971 0.342623 -0.939370 -0.013907
0.26404753 1.53042281 4.64483023 0.282560 -0.959249 -0.001213
0.36560589 1.56123054 1.16577601 0.319188 -0.947552 -0.016272
0.25816172 1.52863741 4.83005333 0.289700 -0.957110 -0.003667
0.35892183 1.55920267 3.12739372 0.291258 -0.956644 -0.001219
0.34364271 1.55456769 3.39247465 0.357581 -0.933324 -0.032273
0.29555976 1.53998232 2.62513185 0.271688 -0.962379 -0.003623
0.34841114 1.55601430 2.84993935 0.359305 -0.933178 -0.008887
0.31516543 1.54592931 3.39309573 0.354498 -0.934587 -0.029649
0.36004847 1.55954444 2.77581072 0.358444 -0.932990 -0.032351
0.37514451 1.56412363 3.04380774 0.362972 -0.931326 -0.029709
0.35902515 1.55923378 4.27670622 0.327410 -0.944882 0.001245
0.38174614 1.56612670 0.55243868 0.352609 -0.935624 0.016548
0.32796410 1.54981184 3.07307625 0.291258 -0.956644 0.001219
0.26775748 1.53154850 3.56737232 0.267198 -0.963605 -0.008463
0.33272141 1.55125499 2.50999212 0.393950 -0.918338 0.038209
0.35879007 1.55916274 2.15688038 0.261791 -0.962429 0.072087
0.37527174 1.56416285 0.42466718 0.311733 -0.950104 -0.011178
0.25791925 1.52856398 4.35486507 0.291258 -0.956644 -0.001219
0.23661666 1.52210200 4.42051411 0.291258 -0.956644 -0.001219
0.26014823 1.52924037 1.12013185 0.274560 -0.961563 0.003629
0.20267820 1.51180696 2.91382241 0.232257 -0.972648 -0.003537
0.25229308 1.52685750 2.79013205 0.273924 -0.961751 0.001207
0.22712158 1.51922166 3.64335561 0.243372 -0.969926 -0.003562
0.24721844 1.52531803 0.77301008 0.291258 -0.956644 0.001219
0.28271392 1.53608549 2.69575191 0.275839 -0.961185 -0.006076
0.29246113 1.53904247 1.07614005 0.304099 -0.952344 -0.023777
0.32052451 1.54755533 1.38220036 0.291258 -0.956644 0.001219
0.21172819 1.51455224 0.37612161 0.211206 -0.975456 0.062263
0.31120819 1.54472923 1.60272026 0.326641 -0.945148 0.001242
0.29251194 1.53905785 0.87071729 0.308766 -0.951098 -0.008680
0.28091317 1.53553939 0.62147671 0.297786 -0.954632 0.001225
0.29488450 1.53977752 0.89350629 0.308766 -0.951098 -0.008680
0.28489003 1.53674579 0.46801749 0.291258 -0.956644 -0.001219
0.35736808 1.55873168 0.60220450 0.364584 -0.931149 0.006352
0.28990746 1.53826773 1.20668769 0.291258 -0.956644 -0.001219
0.21733215 1.51625216 0.80348122 0.201444 -0.978611 0.041719
0.33489773 1.55191541 0.70596904 0.300718 -0.953706 0.003682
0.21404074 1.51525366 2.57193851 0.188810 -0.981576 0.029318
0.21894458 1.51674128 2.34503579 0.145493 -0.989127 0.021429
0.24201986 1.52374113 3.19543242 0.291258 -0.956644 -0.001219
0.23609968 1.52194524 2.74360681 0.230551 -0.973042 0.005912
0.27494863 1.53372991 1.83494866 0.157590 -0.802957 0.574827
0.23359101 1.52118421 1.82881176 0.215698 -0.976005 -0.029793
0.20167525 1.51150262 2.28192616 0.145493 -0.989127 0.021429
0.30551717 1.54300296 0.87200832 0.308766 -0.951098 -0.008680
0.23350684 1.52115870 0.72334480 0.291258 -0.956644 -0.001219
0.21371023 1.51515341 2.04366279 0.125207 -0.972571 0.196032
0.31622341 1.54625058 0.62716848 0.334978 -0.942205 0.006273
0.26089561 1.52946711 2.11481977 0.291258 -0.956644 0.001219
0.30293822 1.54222059 1.61024320 0.326641 -0.945148 0.001242
0.30477294 1.54277718 1.64826405 0.350361 -0.936420 -0.019111
0.28409126 1.53650343 0.50431013 0.291258 -0.956644 -0.001219
0.28214678 1.53591359 2.74709010 0.291258 -0.956644 -0.001219
0.19852379 1.51054657 1.04101241 0.195370 -0.979245 0.053936
0.37155607 1.56303573 0.36315769 0.347308 -0.937605 -0.016538
0.34844160 1.55602396 0.88663012 0.356775 -0.933799 -0.027048
0.26790771 1.53159416 0.79177493 0.291258 -0.956644 0.001219
0.21006963 1.51404905 1.07567728 0.195370 -0.979245 0.053936
0.25910461 1.52892375 1.46393609 0.291258 -0.956644 0.001219
0.29164213 1.53879392 0.45046866 0.291258 -0.956644 -0.001219
0.16600686 1.50664055 2.95179605 0.116148 -0.993227 -0.003256
0.14251202 1.50432646 3.64142227 0.160219 -0.987081 -0.001120
0.16923907 1.50695884 1.82664609 0.215698 -0.976005 -0.029793
0.13229854 1.50332057 2.93223572 0.101730 -0.994811 -0.001071
0.08171868 1.49833870 4.46665144 0.088048 -0.996111 -0.003182
0.16704330 1.50674260 2.81934595 0.145493 -0.989127 -0.021429
0.06153840 1.49635112 4.13398647 0.052882 -0.998536 -0.011406
0.16353920 1.50639749 2.60376048 0.119830 -0.992721 -0.012093
0.17409180 1.50743687 0.97933769 0.104961 -0.994429 0.009739
0.13513649 1.50360000 3.77688074 0.143286 -0.989676 0.003332
0.15109442 1.50517178 4.26643610 0.097074 -0.995277 0.001067
0.17630053 1.50765443 3.85706997 0.167684 -0.983508 -0.067787
0.13070661 1.50316370 4.03614235 0.097074 -0.995277 0.001067
0.07776080 1.49794888 4.26225901 0.097074 -0.995277 0.001067
0.19159892 1.50916123 3.02127671 0.235337 -0.971517 -0.027758
0.17968574 1.50798786 3.39654350 0.097074 -0.995277 0.001067
0.10255308 1.50039077 3.33047199 0.097074 -0.995277 0.001067
0.13050397 1.50314379 2.68287086 0.126877 -0.991844 0.012136
0.03043240 1.49328744 4.77378178 0.097074 -0.995277 0.001067
0.19195452 1.50919616 4.72840357 0.199215 -0.979955 0.001152
0.17530398 1.50755620 2.63279557 0.194785 -0.980840 0.003458
0.13373519 1.50346208 4.06883669 0.097074 -0.995277 0.001067
0.11517646 1.50163412 2.79445863 0.135260 -0.990809 0.001100
0.09572501 1.49971831 4.30186987 0.095566 -0.995395 0.007516
0.14054823 1.50413311 3.38020229 0.097074 -0.995277 0.001067
0.13054721 1.50314808 3.50600147 0.097074 -0.995277 -0.001067
0.17049572 1.50708270 1.05812573 0.168193 -0.984456 0.050575
0.11353388 1.50147235 4.72749329 0.097074 -0.995277 -0.001067
0.12468635 1.50257075 2.31927323 0.128532 -0.991372 0.025706
0.17934859 1.50795460 3.64082670 0.179356 -0.981040 -0.073428
0.04702201 1.49492133 4.49207020 0.087863 -0.996132 -0.001059
0.10170764 1.50030756 2.57273555 0.109713 -0.993934 -0.007604
0.05563818 1.49576998 4.60257864 0.081212 -0.996696 0.001055
0.07067088 1.49725068 4.88300991 0.097074 -0.995277 0.001067
0.14990458 1.50505459 2.35894775 0.128532 -0.991372 0.025706
0.09610821 1.49975598 3.98406744 0.081726 -0.996627 0.007430
0.14529566 1.50460064 1.74792325 0.173497 -0.984684 -0.017235
0.08102137 1.49827003 3.79169226 0.097074 -0.995277 0.001067
0.09186767 1.49933839 1.66411221 0.097074 -0.995277 -0.001067
0.01308091 1.49157846 1.40349758 -0.079116 -0.996860 0.003165
0.04915085 1.49513102 1.60732830 0.013401 -0.998927 0.044328
0.05695643 1.49589980 2.35853958 0.028176 -0.998687 -0.042786
0.09203687 1.49935496 1.10554659 0.109010 -0.994040 0.001079
0.01872083 1.49213398 2.93312478 0.068318 -0.996573 -0.046630
0.04459730 1.49468255 0.39382356 0.068614 -0.997549 0.013723
0.14249544 1.50432479 1.30526173 0.105193 -0.990665 -0.086698
0.11672927 1.50178707 0.81128007 0.138927 -0.990272 -0.007780
0.00916779 1.49119294 3.81119514 0.097074 -0.995277 0.001067
0.09075704 1.49922907 0.47695044 0.097074 -0.995277 0.001067
0.04870409 1.49508703 0.99661213 0.081383 -0.996678 -0.003171
0.01097007 1.49137056 1.48307359 -0.040372 -0.998948 0.021739
0.09359994 1.49950898 0.69313496 0.085942 -0.996295 0.003183
0.16822594 1.50685906 0.37100554 0.111860 -0.993709 -0.005430
0.04395673 1.49461949 2.85318780 0.063873 -0.997892 -0.011518
0.01166947 1.49143946 1.82004058 0.007131 -0.999339 -0.035654
0.09441026 1.49958885 2.62917352 0.109243 -0.994000 -0.005408
0.01761211 1.49202466 2.92547607 0.068318 -0.996573 -0.046630
0.05241232 1.49545228 1.92216349 0.006978 -0.999892 0.012960
0.06955550 1.49714088 0.94659275 0.072203 -0.996830 -0.033407
0.09456693 1.49960423 0.45419535 0.064006 -0.997856 -0.013641
0.12502339 1.50260389 1.78994000 0.124435 -0.992178 0.009911
0.00654174 1.49093437 0.29078835 -0.029192 -0.999573 0.001007
0.03818237 1.49405074 2.05031228 -0.000989 -0.999940 -0.010880
0.12028150 1.50213683 1.65270162 0.097074 -0.995277 -0.001067
0.04721719 1.49494064 0.55687034 -0.009259 -0.998978 -0.044239
0.06646109 1.49683595 0.57920074 0.090153 -0.995927 0.001061
0.00972975 1.49124837 3.50560904 0.033618 -0.999372 0.011206
0.06921697 1.49710739 2.72690415 0.070131 -0.997533 -0.003140
0.03193846 1.49343574 0.62857169 0.014894 -0.999885 0.002979
0.13525772 1.50361192 0.44876078 0.111860 -0.993709 -0.005430
0.08481136 1.49864340 0.73385763 0.083658 -0.996481 0.005295
0.02153932 1.49241149 1.56333506 0.013245 -0.999476 0.029546
0.04364797 1.49458909 0.23463386 -0.043309 -0.998212 -0.041196
0.06284578 1.49647999 1.04160297 0.085581 -0.996331 -0.001057
0.02338830 1.49259353 2.48068452 0.006951 -0.999916 0.010923
0.02709770 1.49295890 3.28357220 0.004926 -0.999976 0.004926
0.02569847 1.49282122 2.66684985 0.057019 -0.998347 -0.007257
0.12156670 1.50226355 1.61041403 0.097074 -0.995277 -0.001067
-0.10214261 1.50035036 4.24280691 -0.097074 -0.995277 0.001067
-0.09046379 1.49920011 4.51797199 -0.097074 -0.995277 -0.001067
-0.05936516 1.49613714 3.25219083 -0.057364 -0.996826 0.055199
-0.03588955 1.49382496 1.28656912 -0.088420 -0.996055 0.007457
-0.14068919 1.50414693 4.18509817 -0.160143 -0.986983 -0.014765
-0.10512266 1.50064385 3.68502402 -0.097074 -0.995277 -0.001067
-0.03904343 1.49413550 3.39082432 -0.057491 -0.998254 -0.013589
-0.06415785 1.49660909 2.34879756 -0.024825 -0.996231 0.083109
-0.12602444 1.50270259 4.04045439 -0.097074 -0.995277 0.001067
-0.05361806 1.49557102 2.83565092 -0.028179 -0.998774 -0.040702
-0.05921213 1.49612200 1.61643171 -0.061193 -0.997335 0.039722
-0.03820708 1.49405313 3.23680162 -0.057364 -0.996826 0.055199
-0.01681808 1.49194646 1.85382915 -0.063592 -0.996997 0.044191
-0.00426138 1.49070978 4.49128532 -0.003008 -0.999730 0.023063
-0.03408616 1.49364734 4.16444016 -0.048445 -0.998800 -0.007215
-0.05356523 1.49556589 4.21893311 -0.097074 -0.995277 0.001067
-0.10908435 1.50103414 4.38521767 -0.097074 -0.995277 -0.001067
-0.17691590 1.50771499 4.82812548 -0.224304 -0.974357 0.017802
-0.13228376 1.50331903 4.20859194 -0.097074 -0.995277 0.001067
-0.07234484 1.49741554 4.27802324 -0.097074 -0.995277 -0.001067
-0.09720122 1.49986362 3.28854275 -0.063479 -0.997978 -0.003122
-0.00532123 1.49081409 4.38604736 0.004994 -0.999807 -0.018977
-0.14593109 1.50466323 4.57530975 -0.138927 -0.990272 -0.007780
-0.06831969 1.49701905 2.38937283 -0.048644 -0.998751 -0.011385
-0.13965583 1.50404513 4.87353516 -0.222542 -0.974661 0.022611
-0.14217968 1.50429380 4.30018950 -0.138624 -0.990330 0.005545
-0.07205736 1.49738717 3.94858599 -0.097074 -0.995277 0.001067
-0.07294061 1.49747419 4.09767246 -0.097074 -0.995277 0.001067
-0.04553614 1.49477506 1.99414468 -0.009007 -0.999815 -0.017014
-0.06161691 1.49635887 3.05571890 -0.097074 -0.995277 0.001067
-0.11002579 1.50112677 4.24435282 -0.097074 -0.995277 0.001067
-0.03878621 1.49411023 2.65917182 -0.069593 -0.995297 0.067384
-0.00597111 1.49087811 0.64857125 0.008937 -0.999936 0.006951
-0.06788631 1.49697638 4.26641369 -0.097074 -0.995277 -0.001067
-0.00960793 1.49123633 3.99092937 -0.008972 -0.999900 0.010966
-0.08058903 1.49822748 3.56073236 -0.092844 -0.995675 -0.003202
-0.01454317 1.49172246 2.88439798 -0.028179 -0.998774 -0.040702
-0.11529010 1.50164533 3.28557467 -0.133100 -0.991102 -0.001100
-0.05054251 1.49526811 1.47275639 -0.081042 -0.996710 0.001052
-0.02694267 1.49294376 3.56508350 -0.095233 -0.995016 -0.029555
-0.01857932 1.49212003 0.99360836 -0.014894 -0.999889 -0.000993
-0.12366164 1.50246990 3.06994224 -0.097074 -0.995277 0.001067
-0.08176869 1.49834371 1.16789043 -0.097074 -0.995277 -0.001067
-0.07888056 1.49805915 0.23353639 -0.071214 -0.995895 -0.055875
-0.07814682 1.49798691 1.86982930 -0.088234 -0.996086 -0.005315
-0.15509504 1.50556576 0.79961973 -0.133973 -0.990955 -0.007750
-0.16144969 1.50619173 1.29321456 -0.132077 -0.991134 -0.014429
-0.16513075 1.50655425 1.33465719 -0.146420 -0.989171 -0.010059
-0.19099431 1.50910163 4.35778570 -0.207812 -0.978010 -0.017611
-0.17333698 1.50736248 1.29791009 -0.160928 -0.986950 -0.005627
-0.13985251 1.50406444 1.87570035 -0.113547 -0.993263 0.023150
-0.17425472 1.50745285 3.58609676 -0.182001 -0.983266 -0.008013
-0.17210679 1.50724137 2.66250110 -0.097074 -0.995277 0.001067
-0.09900275 1.50004113 1.79920733 -0.088421 -0.996069 -0.005327
